# .PCD v0.7 - Point Cloud Data file format
VERSION 0.7
FIELDS x y z intensity
SIZE 4 4 4 4
TYPE F F F F
COUNT 1 1 1 1
WIDTH 1399
HEIGHT 1
VIEWPOINT 0 0 0 1 0 0 0
POINTS 1399
DATA ascii
3.1035409 2.7694173 0.01140333 0
3.1012623 2.8303432 0.018624656 0
2.0899634 -0.3536098 0.062909879 0
2.1485505 -0.26605272 0.054036818 0
3.0094113 2.8413215 0.017700367 0
3.0686851 2.8372884 0.018549077 0
2.9201074 2.8474059 0.017156027 0
2.8192189 2.8542914 0.017720945 0
2.7140169 2.8614857 0.01970733 0
1.7634054 0.12389827 0.082193725 0
2.6257546 2.8876667 0.025260709 0
1.3991452 -1.000946 0.09423656 0
1.7431066 0.25933826 0.072655551 0
1.7184314 0.31980884 0.069709755 0
2.581775 2.9634285 0.037023716 0
2.5471344 3.0331852 0.02663403 0
1.2760482 -1.0613139 0.10430413 0
1.6789557 0.37414932 0.068610258 0
2.4872344 3.1549127 0.020097263 0
1.6161335 0.43433595 0.069215484 0
1.5645888 0.46659482 0.071259893 0
2.4280002 3.2772565 0.035142533 0
1.5050211 0.48935521 0.074915819 0
2.3713565 3.3942657 0.049689747 0
1.3864973 0.50376797 0.084835269 0
1.4360425 0.50302553 0.080257528 0
2.3032436 3.532043 0.036624171 0
1.2735585 0.47822154 0.097342767 0
1.9072474 2.7272232 0.059761219 0
1.9352522 2.7975399 0.043772288 0
1.9472145 2.8517179 0.048055179 0
1.7648253 2.582978 0.063630007 0
1.8223534 2.6253688 0.059946768 0
1.8803391 2.6842129 0.058412723 0
1.9498668 2.9161406 0.054392524 0
1.9348896 2.9891725 0.040420167 0
1.9038718 3.0749578 0.025289737 0
2.1872783 3.8816376 0.034892194 0
1.6830451 2.55321 0.052056961 0
2.1158504 3.9298537 0.041586109 0
2.0595689 3.9678481 0.046939157 0
1.5636723 2.5411444 0.067452885 0
1.6095589 2.5403168 0.061149143 0
2.0002825 4.007874 0.052659132 0
1.5025576 2.5499034 0.053457044 0
1.9154184 4.0637817 0.020014919 0
1.8259012 4.1241736 0.027426414 0
1.754581 4.1722908 0.033397697 0
1.6785591 4.2235823 0.039831571 0
1.5701149 4.2967539 0.0491051 0
1.482865 4.3556271 0.056639783 0
1.4211739 4.397254 0.062007569 0
1.3227011 4.4637055 0.070638917 0
1.2176685 4.5345845 0.079910062 0
1.1428003 4.5851102 0.086563088 0
1.0638916 4.6383629 0.09360946 0
0.38510919 2.8435228 0.083160035 0
0.4178977 2.9431913 0.082405262 0
0.4227469 3.0197196 0.083634548 0
0.24443746 2.6933572 0.09248554 0
0.32456851 2.7564046 0.086699553 0
0.41873741 3.0625312 0.084918745 0
0.39593697 3.1386065 0.088533483 0
0.10562229 2.6457615 0.10365961 0
0.3333149 3.2423754 0.096074603 0
2.8575983 0.14629364 0.11800929 0
2.9317811 0.20606935 0.10885989 0
2.9426 0.34183562 0.14439839 0
2.947896 0.42815244 0.12971279 0
2.9534688 0.5191375 0.1140094 0
2.9604411 0.61710346 0.1201201 0
2.7584093 0.15306425 0.11868512 0
2.9680393 0.72742653 0.12088581 0
2.9749126 0.82796919 0.12069722 0
2.9804931 0.9087069 0.12205981 0
2.6612492 0.1597048 0.1201184 0
2.529712 0.16870725 0.12329648 0
2.5892718 0.16462898 0.12166079 0
2.3896482 0.087113261 0.14137203 0
2.4578264 0.1658299 0.12678325 0
2.195313 -0.20246696 0.15671399 0
2.2543743 -0.11389077 0.14232039 0
2.3265207 -0.0076470375 0.15826851 0
3.1017518 2.6933494 0.092936732 0
3.1073248 2.7653267 0.10773519 0
3.1045375 2.8313055 0.10004546 0
2.0678108 -0.39132404 0.14714795 0
2.1523371 -0.26692295 0.16725978 0
3.013041 2.8418412 0.11714306 0
3.0695057 2.838017 0.11969874 0
2.9236314 2.8479083 0.11421057 0
2.8226542 2.8547797 0.1128371 0
2.7173936 2.8619666 0.11370181 0
1.7676531 0.12565374 0.18230256 0
2.6292057 2.8888898 0.12102651 0
1.4029254 -1.0007274 0.20180702 0
1.746911 0.26048887 0.16692057 0
1.7221301 0.32084548 0.16179511 0
2.5846994 2.9650099 0.11872316 0
2.5509498 3.03543 0.13473862 0
1.2799534 -1.061084 0.21553421 0
1.682528 0.375 0.15931728 0
2.4984415 3.142699 0.13524094 0
1.6196375 0.43507111 0.15907106 0
1.5680768 0.46726716 0.16131559 0
2.4314797 3.2798193 0.13893372 0
1.5085206 0.48997474 0.16595471 0
1.6876903 1.2811503 0.15746593 0
2.3741138 3.3964183 0.13378766 0
1.390047 0.50428069 0.17937541 0
1.4395536 0.50356793 0.17308614 0
2.306124 3.5348043 0.12831458 0
1.2921945 0.48463821 0.19409308 0
1.9075282 2.7208827 0.16003755 0
1.9382752 2.7939336 0.14706403 0
1.9515982 2.8511603 0.15512496 0
1.7685015 2.583204 0.16340929 0
1.8261085 2.6254535 0.1587235 0
1.881894 2.6807241 0.15746424 0
1.9546993 2.9150505 0.16617939 0
1.9383159 2.9943323 0.15821072 0
2.1910169 3.8830409 0.14513424 0
1.7149934 2.562393 0.17131084 0
2.1196611 3.9313273 0.15508559 0
2.0634375 3.9693787 0.16306505 0
1.567108 2.5418766 0.17830673 0
1.6131127 2.5408792 0.16853207 0
2.0042112 4.0094676 0.17161334 0
1.5059272 2.5507898 0.16886729 0
1.9194603 4.0653367 0.14274544 0
1.8300387 4.1258259 0.15461016 0
1.7574139 4.1733561 0.12038767 0
1.6814477 4.2247052 0.12943006 0
1.5730819 4.2979617 0.14248911 0
1.4858932 4.3569069 0.15311921 0
1.4242449 4.3985863 0.16070276 0
1.3258382 4.4651227 0.17291373 0
-0.47806811 -1.128459 0.22394335 0
-0.39750504 -1.1340108 0.21827182 0
1.2208741 4.536097 0.18604687 0
-0.56073093 -1.1227615 0.22980905 0
1.146052 4.5866928 0.195483 0
-0.64561319 -1.1169105 0.23587927 0
0.39024282 2.8436682 0.21013966 0
0.42325282 2.9432049 0.2101039 0
0.42643809 3.0196648 0.1697033 0
0.24771833 2.6935833 0.17954987 0
0.33612776 2.7633755 0.21410826 0
0.42259049 3.0623927 0.17182782 0
0.39998984 3.1383753 0.17746678 0
-1.0079489 -1.3103321 0.27042648 0
0.10837841 2.6462302 0.19486168 0
0.3392365 3.2410359 0.18854785 0
-1.0962181 -1.2508881 0.27486107 0
-1.185704 -1.190619 0.2794866 0
-1.2762573 -1.1296275 0.28427175 0
-1.3373911 -1.0884488 0.28757223 0
-1.4303412 -1.0258353 0.29269651 0
-1.5246296 -0.96231604 0.29800111 0
-1.5884428 -0.9193244 0.30166271 0
-1.6530204 -0.87581611 0.30542228 0
-1.1708155 2.8914909 0.21633944 0
-1.1295226 2.9662647 0.21364686 0
-1.2703633 2.8016517 0.22403049 0
-1.2132897 2.8451574 0.21951815 0
-1.3565392 2.7637365 0.23116073 0
-1.3980348 4.4151897 0.2637713 0
-3.0100193 2.5763857 0.37459299 0
-3.0044799 2.657186 0.37442616 0
-2.9989266 2.7381673 0.3743197 0
-2.9933558 2.8193636 0.37427357 0
-2.9877653 2.9008095 0.37428817 0
-2.9821539 2.9825392 0.37436378 0
-2.9765158 3.0645878 0.3745006 0
2.936723 0.20353055 0.22935164 0
2.8619227 0.14709425 0.24102318 0
2.942682 0.30365539 0.20801547 0
2.9522722 0.42633402 0.23627293 0
2.9575903 0.51756799 0.21421802 0
2.9647925 0.62402809 0.21222097 0
2.7627056 0.15385211 0.24024665 0
2.9713161 0.73694301 0.18355808 0
2.6655312 0.16048276 0.24065143 0
2.5339963 0.16947746 0.24306941 0
2.5935516 0.16540182 0.2416774 0
2.3929281 0.086553216 0.23593542 0
2.4621043 0.16610324 0.24713081 0
2.1977825 -0.20309591 0.23054016 0
2.2579627 -0.11468565 0.24823949 0
2.3299577 -0.0082865953 0.25832805 0
3.1070075 2.8319557 0.16262329 0
2.0594454 -0.41106343 0.27301204 0
2.1088834 -0.33673716 0.25776079 0
2.1548738 -0.26759815 0.24364346 0
3.0825531 2.8373895 0.16176954 0
1.772002 0.12753999 0.28355575 0
1.4067297 -1.0005054 0.31004727 0
1.7508277 0.26177919 0.26230887 0
1.7259438 0.32201946 0.25498489 0
2.5869465 2.9660327 0.1815387 0
2.5533109 3.0365977 0.20149913 0
1.2838837 -1.0608518 0.32745683 0
1.6873996 0.37620032 0.28227466 0
2.4885168 3.1702657 0.21488076 0
1.6244215 0.4361161 0.28089115 0
1.5728432 0.46822894 0.28341714 0
2.4350719 3.2822938 0.24560663 0
1.5133079 0.49086773 0.28939888 0
2.3769066 3.398808 0.21972528 0
1.3937949 0.50497198 0.27508828 0
1.4432491 0.5042814 0.26706421 0
2.3191848 3.519346 0.24814874 0
1.2644906 0.47275877 0.26711869 0
1.9235752 2.746182 0.20359579 0
1.9435173 2.8051496 0.21281227 0
1.9576285 2.9144568 0.23497194 0
1.929987 3.0317736 0.24086294 0
2.1935656 3.8838353 0.21945381 0
1.6836826 2.5513358 0.21935779 0
2.1222639 3.9321654 0.23160324 0
2.0660834 3.970252 0.24135497 0
1.551559 2.5440505 0.25151011 0
1.6154723 2.5411015 0.23470578 0
2.0069029 4.0103803 0.25181198 0
1.5088946 2.551384 0.2636573 0
1.9235446 4.0669107 0.26679507 0
1.8342202 4.1274991 0.28316593 0
1.7616135 4.1752357 0.25220838 0
1.6842566 4.2261057 0.21967804 0
1.5759573 4.2994561 0.23655388 0
1.488821 4.3584795 0.25030524 0
1.4272084 4.4002171 0.26012328 0
1.3288575 4.4668474 0.2759442 0
-0.47225976 -1.1274893 0.37306643 0
-0.39178514 -1.1330545 0.36551526 0
1.2239505 4.5379252 0.29297236 0
-0.55483079 -1.121778 0.38089168 0
1.1491677 4.5885963 0.30521536 0
0.39539146 2.8438301 0.33831301 0
0.42862964 2.943234 0.33898023 0
0.43207669 3.0195518 0.29985905 0
0.25260592 2.6939538 0.31131324 0
0.31986547 2.7433608 0.30227137 0
0.42851806 3.062125 0.30322403 0
0.41197491 3.1238813 0.30980691 0
0.11114836 2.646703 0.28666046 0
0.34516478 3.2397015 0.2813727 0
-1.165308 2.891767 0.35282695 0
-1.1239855 2.9665074 0.34947929 0
-1.2650604 2.8020308 0.36312202 0
-1.2078767 2.8454819 0.35703072 0
-1.3518331 2.7642937 0.37296507 0
2.9405074 0.20167351 0.32214233 0
2.8652649 0.14758241 0.33549169 0
2.9473341 0.32063007 0.29087275 0
2.7660189 0.15433097 0.33360064 0
2.6688259 0.16095448 0.33321631 0
2.5372829 0.16994393 0.33505127 0
2.5968392 0.16587019 0.33384603 0
2.396276 0.085869431 0.33280444 0
2.4653835 0.16620386 0.33959648 0
2.2015734 -0.20392346 0.34312195 0
2.261615 -0.1154927 0.35602844 0
2.3417602 0.0034973621 0.35685092 0
2.0621943 -0.41171217 0.35609752 0
2.1115522 -0.33733273 0.337827 0
2.1587703 -0.26849103 0.36012921 0
1.7748456 0.12859988 0.35218111 0
1.4106405 -1.0001025 0.4191964 0
1.7546998 0.26284945 0.35982263 0
1.7297033 0.32297242 0.35026404 0
1.3196479 -1.0448382 0.43480763 0
1.6911187 0.37709069 0.37662348 0
1.6280712 0.43688631 0.37438115 0
1.5764772 0.46893442 0.37713155 0
1.516955 0.49151897 0.38415185 0
2.379806 3.400888 0.30750012 0
1.3973264 0.50533867 0.37305829 0
1.4467533 0.50468743 0.36324772 0
2.3029904 3.5591908 0.32189938 0
1.2994823 0.48537755 0.39672336 0
2.1974092 3.8852823 0.33281979 0
2.1353443 3.9274523 0.34615973 0
2.0687037 3.9713788 0.32061118 0
2.0095625 4.0115509 0.33300224 0
1.9262598 4.0681453 0.35076767 0
1.8369939 4.1288052 0.37019283 0
1.7658726 4.177145 0.38591775 0
1.7015955 4.2191486 0.35390958 0
1.5789707 4.3006887 0.33146992 0
1.4918973 4.3597841 0.34837356 0
1.430328 4.4015751 0.36044854 0
1.3320446 4.4682932 0.3799158 0
1.2272063 4.5394678 0.40087864 0
1.1524715 4.59021 0.41595736 0
0.39885902 2.8439445 0.42492095 0
0.43225431 2.9432571 0.42604706 0
0.43778491 3.0194364 0.43162093 0
-0.91380715 -1.3678644 0.4323248 0
0.25740695 2.6943851 0.44482931 0
0.33787632 2.7571418 0.43154564 0
0.43451762 3.0618539 0.43621418 0
0.40472984 3.1517279 0.40452883 0
-1.001132 -1.3090258 0.43752435 0
0.34997725 3.23909 0.37503374 0
-1.0893381 -1.2495873 0.44294837 0
0.11348152 2.6473339 0.37938151 0
-1.1787579 -1.1893241 0.4486638 0
-1.2692392 -1.1283376 0.45462134 0
-1.330323 -1.0871618 0.45876011 0
-1.4231935 -1.0245526 0.46522954 0
-1.5173979 -0.96103811 0.47196999 0
-1.581152 -0.91804886 0.4766511 0
-1.6456671 -0.87454367 0.48147842 0
-1.1597686 2.8920445 0.49010429 0
-1.118417 2.9667511 0.48609337 0
-1.2597284 2.8024127 0.50304157 0
-1.2024322 2.845808 0.49534914 0
-1.3470995 2.7648549 0.51566458 0
-1.39202 4.4156909 0.43001834 0
-3.0015702 2.5768604 0.57220697 0
-2.9960246 2.6576407 0.57224101 0
-2.9904613 2.7386022 0.57237625 0
-2.9848809 2.8197792 0.57261336 0
-2.9792771 2.9012051 0.57295239 0
-2.9736505 2.9829149 0.57339442 0
-2.9679976 3.0649438 0.57394004 0
2.2054214 -0.2048955 0.45811233 0
2.2640972 -0.11608136 0.42947468 0
2.3180506 -0.034426808 0.4033539 0
2.0649831 -0.41236997 0.44038859 0
2.1156082 -0.33838177 0.46039841 0
2.1627233 -0.26953506 0.47911158 0
1.777835 0.12989664 0.42178366 0
1.444232 -0.98511052 0.52360338 0
1.256211 -1.0760291 0.44583026 0
1.2552818 0.4668653 0.44535437 0
2.2013743 3.8865316 0.44850209 0
2.1197124 3.9407921 0.42967913 0
2.0727973 3.972743 0.44180921 0
2.0237794 4.0061216 0.45435628 0
1.9290857 4.0691476 0.43589941 0
1.8629951 4.114141 0.45253125 0
1.8167849 4.145606 0.46431527 0
1.7688239 4.1782675 0.47666451 0
1.6785946 4.2380905 0.45260546 0
1.5819086 4.3022156 0.4275752 0
1.4948888 4.3613915 0.44767395 0
1.4333563 4.4032412 0.4620367 0
1.3351299 4.4700556 0.48520055 0
-0.46641707 -1.1265132 0.52305537 0
-0.38603067 -1.1320922 0.51361448 0
1.2303504 4.5413361 0.51015222 0
-0.5488956 -1.1207879 0.53285068 0
0.4024055 2.8440454 0.51267278 0
0.43591785 2.9432857 0.51426375 0
0.4416182 3.0193782 0.52092659 0
-0.90700984 -1.3665442 0.59945023 0
0.26081109 2.6946225 0.53534436 0
0.34132767 2.7573178 0.5201143 0
0.43851757 3.061708 0.52634317 0
0.41680002 3.1372633 0.54011655 0
-0.99427581 -1.3077114 0.60556591 0
0.35513973 3.2382803 0.46953121 0
-1.0824196 -1.2482793 0.61198449 0
0.11584234 2.6479721 0.47320846 0
-1.1717706 -1.1880205 0.6187951 0
-1.2621813 -1.1270401 0.62593126 0
-1.3232141 -1.0858669 0.6309123 0
-1.3860927 4.4162769 0.59729975 0
2.0677562 -0.41332412 0.52620381 0
1.3849586 -1.0142763 0.53550941 0
1.2920203 -1.0600104 0.55443311 0
1.9950233 4.0271645 0.50461924 0
1.9319583 4.0701704 0.52247214 0
1.8659204 4.1152143 0.54143184 0
1.8197465 4.1467142 0.55486864 0
1.7718236 4.1794138 0.56895262 0
1.6961281 4.2310724 0.59148419 0
1.5849996 4.3034883 0.52501798 0
1.4980438 4.3627396 0.54835957 0
1.4365556 4.404644 0.56504428 0
1.3383982 4.471549 0.59196007 0
-0.4603622 -1.1253691 0.67424446 0
-0.38006902 -1.1309609 0.66289961 0
1.23369 4.5429287 0.62096077 0
-0.54274249 -1.1196296 0.68602461 0
1.155655 4.5921569 0.52810609 0
0.40600801 2.8441482 0.60181701 0
0.43964005 2.9433146 0.60387123 0
0.44551158 3.0193191 0.61162883 0
0.26426744 2.6948647 0.62731755 0
0.34483194 2.7574973 0.61009991 0
0.44258094 3.0615592 0.61786979 0
0.42107344 3.1370156 0.63371843 0
0.36006546 3.2376509 0.56525838 0
0.1201396 2.6487203 0.61659032 0
-1.4160044 -1.0232625 0.63873392 0
-1.5101242 -0.95975208 0.6469174 0
-1.5738177 -0.91676521 0.652623 0
-1.6382718 -0.87326264 0.65852356 0
-1.1542308 2.8923378 0.62852573 0
-1.1128323 2.9670062 0.62383819 0
-1.2544873 2.8028324 0.64416838 0
-1.1970289 2.8461602 0.63483846 0
-1.3426571 2.7655005 0.65968573 0
-2.993073 2.5773373 0.77093244 0
-2.9875207 2.6580982 0.77116847 0
-2.9819479 2.7390399 0.77154672 0
-2.976357 2.8201966 0.77206826 0
-2.9707413 2.9016027 0.77273369 0
-2.9651003 2.9832926 0.77354395 0
-2.9594297 3.0653012 0.77450019 0
1.4184587 -0.99963641 0.64151758 0
1.2960066 -1.0599461 0.67020291 0
1.5881411 4.3047876 0.6241228 0
1.5012509 4.3641148 0.65076584 0
1.4398077 4.4060755 0.66981477 0
1.34172 4.4730725 0.70055103 0
1.159044 4.5938225 0.64183319 0
-0.90003133 -1.3650968 0.7679022 0
-0.98723459 -1.3062727 0.77494067 0
0.36506867 3.2370093 0.66240764 0
-1.0753114 -1.2468479 0.78236103 0
-1.1645923 -1.1865978 0.7902751 0
-1.2549264 -1.1256232 0.79859805 0
-1.3159068 -1.084456 0.80442798 0
-1.4086134 -1.0218585 0.81361145 0
-1.5026436 -0.95835447 0.82324845 0
-1.5662751 -0.91537213 0.8299861 0
-1.6306648 -0.87187386 0.83696759 0
-1.1486325 2.8926344 0.76844198 0
-1.1071882 2.9672637 0.76306468 0
-1.2491877 2.8032565 0.78684938 0
-1.1915662 2.8465161 0.77584743 0
-1.3381641 2.7661538 0.80536062 0
-1.3799896 4.4167862 0.76599777 0
1.4225327 -0.9992156 0.75521237 0
1.300221 -1.0595098 0.78776503 0
-0.45424223 -1.124213 0.8270489 0
-0.37404442 -1.1298187 0.81378067 0
1.2370842 4.5445542 0.73367488 0
-0.53652453 -1.1184602 0.84083444 0
1.1624877 4.5955229 0.7575196 0
-1.1429143 2.8929214 0.91021192 0
-1.1014397 2.9675159 0.90413415 0
-2.9844704 2.5778131 0.97126102 0
-2.9789114 2.6585536 0.97170055 0
-2.9733305 2.7394748 0.97232378 0
-2.9677262 2.820611 0.97313178 0
-2.9620986 2.9019964 0.97412586 0
-2.9564424 2.9836655 0.97530711 0
-0.44836473 -1.1233573 0.98199165 0
-0.36825323 -1.1289773 0.96677363 0
-0.53055596 -1.11759 0.99780977 0
-0.89297843 -1.3636339 0.93813312 0
-0.98011875 -1.3048184 0.94610369 0
-1.0681286 -1.2454019 0.95453584 0
-1.157337 -1.1851592 0.96356416 0
-1.2475958 -1.1241932 0.97308612 0
-1.3085225 -1.0830305 0.97977328 0
-1.4011436 -1.0204391 0.99033225 0
-1.4950852 -0.95694256 1.0014373 0
-1.5586538 -0.91396523 1.0092174 0
-1.6229768 -0.87047029 1.0172902 0
-1.2436821 2.8036523 0.93142807 0
-1.1859453 2.8468537 0.91872764 0
-1.3332789 2.7667372 0.9529897 0
-1.373946 4.4173841 0.93659866 0
-2.9507561 3.0656533 0.97667718 0
-0.88608217 -1.3623812 1.1106825 0
-0.94399834 -1.323272 1.1165365 0
-1.1371803 2.8932352 1.0542591 0
-1.0955994 2.967772 1.0474411 0
-1.2380898 2.8040547 1.0783308 0
-1.1802366 2.8471975 1.0638907 0
-1.3283191 2.7673316 1.1030496 0
-1.3676951 4.4179087 1.1094968 0
-2.9757771 2.5782943 1.1737121 0
-2.9702091 2.6590137 1.1743569 0
-2.9646196 2.7399142 1.1752276 0
-2.9590058 2.8210297 1.1763252 0
-0.40205812 -1.1249838 1.130682 0
-0.52415466 -1.1163847 1.1571602 0
-1.0023324 -1.2838702 1.1226585 0
-1.0611138 -1.2441585 1.1290548 0
-1.1501215 -1.1838107 1.1391667 0
-1.2403057 -1.1228495 1.1499027 0
-1.3011804 -1.0816903 1.1574579 0
-1.3937192 -1.0191042 1.1694099 0
-1.4875727 -0.95561171 1.1820018 0
-1.5510802 -0.91263747 1.1908377 0
-1.6153383 -0.86914492 1.2000159 0
-2.9533648 2.9023943 1.1776514 0
-2.9476943 2.9840426 1.1792076 0
-2.9419918 3.0660098 1.1809957 0
2.9315484 0.57661533 -0.43910536 0
2.9415205 0.82260251 -0.44224128 0
2.9476738 1.0074155 -0.44454372 0
2.876687 0.56910026 -0.43656534 0
2.8769445 0.81126058 -0.43922421 0
2.8605793 0.98876584 -0.44043779 0
2.9082582 0.99802077 -0.44267508 0
2.7775872 0.56019402 -0.43202823 0
2.7375479 0.79652381 -0.432818 0
2.7841339 0.79983962 -0.43494132 0
2.780504 0.97785306 -0.43673086 0
2.7095678 0.7954489 -0.43155271 0
2.7080698 0.97244394 -0.4334265 0
2.4866493 0.80764818 -0.4216992 0
2.4755168 0.98717916 -0.42316312 0
2.4123974 0.99911702 -0.42046583 0
2.3656662 1.0106913 -0.41849872 0
2.3944416 3.2383838 -0.44290408 0
2.2815294 1.0370166 -0.41501716 0
2.3051054 3.2177672 -0.43990666 0
2.2875297 3.4126973 -0.44125715 0
2.2068119 1.06585 -0.41198495 0
2.2038219 3.1790905 -0.43494621 0
2.2046559 3.3847234 -0.43723848 0
2.1992507 3.6381834 -0.43613178 0
2.0563941 3.1023026 -0.42750183 0
2.1067462 3.1314077 -0.43007582 0
2.106349 3.3433621 -0.43238214 0
2.0999441 3.6225526 -0.43514729 0
2.0812702 3.9221134 -0.42368674 0
2.0013254 3.0653152 -0.4246304 0
1.9950314 3.2849746 -0.42675668 0
2.0455155 3.3134987 -0.42933029 0
2.0045662 3.5811901 -0.43042213 0
2.0082686 3.9658351 -0.43119818 0
1.9160588 2.9997263 -0.42009345 0
1.9415264 3.0208418 -0.42146525 0
1.8590264 3.1937068 -0.41966581 0
1.913687 3.2331464 -0.42254585 0
1.9124432 3.5335746 -0.4257744 0
1.9089782 3.9491906 -0.43016273 0
1.8362916 3.1759357 -0.41845304 0
1.8046732 3.4675686 -0.42022461 0
1.7940283 3.8929873 -0.42439845 0
1.8445265 3.9190454 -0.42694572 0
1.6935735 3.3866591 -0.41436279 0
1.7387657 3.4217575 -0.41677114 0
1.7076583 3.8440871 -0.41999444 0
1.5465109 2.4033177 -0.39702427 0
1.5620109 2.4580743 -0.39831731 0
1.5823808 2.5199137 -0.39990586 0
1.6123072 3.7831841 -0.41505679 0
1.5326245 1.9062911 -0.39096862 0
1.5236958 1.961921 -0.39117676 0
1.5141827 2.0581188 -0.39180222 0
1.5127686 2.1549463 -0.39279738 0
1.5205607 2.2597651 -0.39429238 0
1.5359069 2.3557758 -0.3960295 0
1.4876069 3.6910379 -0.40846279 0
1.5432326 3.7342145 -0.4114269 0
1.5225099 4.3046045 -0.40526524 0
1.3453929 1.9682536 -0.38325787 0
1.3450555 2.2945349 -0.38680971 0
1.354865 2.3594794 -0.38795915 0
1.3764898 2.460561 -0.39003298 0
1.3938781 2.5241356 -0.391507 0
1.4441804 3.6552763 -0.40612635 0
1.4204226 4.3434305 -0.41151559 0
1.3372277 2.0611181 -0.38390726 0
1.3358611 2.1638346 -0.38496897 0
1.3402289 2.2479265 -0.38608393 0
1.3093936 4.2802477 -0.40693519 0
1.1549799 2.5704856 -0.38131088 0
1.1706604 2.6240602 -0.38259906 0
1.1920481 4.193037 -0.4007245 0
1.2353026 4.2266254 -0.40302959 0
1.0973036 2.1647453 -0.37429136 0
1.1015298 2.2642684 -0.37556866 0
1.1122383 2.3635194 -0.37713346 0
1.1289655 2.4621463 -0.37896103 0
1.1408238 2.5165479 -0.38008705 0
1.0940956 4.1114221 -0.3954438 0
1.1355575 4.146946 -0.39768973 0
0.7802633 2.4624627 -0.3633424 0
0.79962087 2.5694571 -0.36537927 0
0.82497132 2.6754699 -0.36767396 0
0.84361303 2.7411413 -0.36922708 0
0.32686043 2.8889928 -0.34770322 0
2.9297285 0.47562087 -0.36901683 0
2.9360976 0.56417871 -0.38544926 0
2.9415462 0.64536524 -0.40035483 0
2.950299 0.75175929 -0.38321856 0
2.9570248 0.8460753 -0.39152437 0
2.9628358 0.92777789 -0.39907303 0
2.9724331 1.0509725 -0.39556125 0
2.9795783 1.1359476 -0.37797034 0
2.8635447 0.10759389 -0.37877819 0
2.8877037 0.24463642 -0.39770183 0
2.9215934 0.37532711 -0.38190979 0
2.7770905 0.11416006 -0.37368727 0
2.7676706 0.22006249 -0.42786562 0
2.7114031 0.55733585 -0.42903188 0
2.4241767 0.14089704 -0.35756943 0
2.4328578 0.23804593 -0.41305342 0
2.4480939 0.57476008 -0.4174259 0
2.4499097 0.81328869 -0.42011487 0
2.5023429 3.0831602 -0.40023968 0
2.4699683 3.1531167 -0.37970778 0
2.3712478 0.067779779 -0.36482051 0
2.3668242 0.24877131 -0.41021255 0
2.3724332 0.5880903 -0.41418198 0
2.3771138 0.82794881 -0.41701382 0
2.4178493 3.2612789 -0.38313285 0
2.3714797 3.3577628 -0.38056231 0
2.2276387 -0.14123249 -0.38621086 0
2.2927463 -0.046477556 -0.376436 0
2.2621069 0.27024102 -0.40575629 0
2.318819 0.59959137 -0.41190574 0
2.265775 0.61329365 -0.40967914 0
2.2785401 0.85406351 -0.41288316 0
2.33567 3.4331121 -0.37051708 0
2.2942119 3.517581 -0.3855041 0
2.1597617 -0.23286414 -0.3534784 0
2.1716585 0.29358196 -0.40195963 0
2.1716363 0.64229476 -0.40577874 0
2.1910243 0.88433945 -0.40929335 0
2.1395302 0.90514278 -0.40721381 0
2.1559532 1.0893781 -0.40996367 0
2.1855822 3.8532538 -0.38015899 0
2.0208242 -0.44720006 -0.32613367 0
2.0790329 -0.3623178 -0.32045636 0
2.0761652 -0.2107389 -0.39216584 0
2.0826068 0.32140279 -0.3982746 0
2.0694509 0.68113708 -0.40162534 0
2.0809326 0.93268669 -0.4048897 0
2.0786636 1.1314247 -0.40696073 0
2.1351275 3.887435 -0.38485384 0
2.0833616 3.9243026 -0.35606706 0
1.9580039 -0.53880334 -0.33230931 0
1.9784839 -0.18149686 -0.38810977 0
1.9826735 0.35822141 -0.39420053 0
1.9702841 0.72687936 -0.3976827 0
1.9914594 0.98096597 -0.401409 0
1.9364771 1.0150424 -0.39931831 0
1.9980216 1.1833892 -0.40391594 0
1.9467933 1.2216842 -0.40203956 0
2.0076578 3.9756563 -0.36222482 0
1.8663352 -0.14233613 -0.38351405 0
1.8970361 0.39474678 -0.39076361 0
1.8370241 0.4233036 -0.38838759 0
1.8745775 0.77929425 -0.39396796 0
1.8761108 1.0576659 -0.39707983 0
1.8862518 1.273869 -0.39989772 0
1.8400015 1.3180346 -0.39830846 0
1.8399668 1.4873183 -0.35117882 0
1.8464942 1.5230862 -0.34497347 0
1.934139 2.7794461 -0.35486054 0
1.9457471 2.8608754 -0.34924161 0
1.9382055 2.9419844 -0.36437854 0
1.9135911 3.019465 -0.35998473 0
1.9054744 4.0449605 -0.37079638 0
1.7671269 -0.83420515 -0.35268098 0
1.7717483 -0.10494375 -0.37968576 0
1.7250999 -0.084780693 -0.3778165 0
1.7385103 0.10713601 -0.35710233 0
1.735406 0.17346025 -0.35009968 0
1.7250018 0.22119355 -0.34521192 0
1.76652 0.4604677 -0.38563558 0
1.7738838 0.84446776 -0.39016929 0
1.8248885 1.0971174 -0.39521632 0
1.7761259 1.1395617 -0.39349571 0
1.7953076 1.3626044 -0.35641086 0
1.8252602 1.4380155 -0.3416279 0
1.7749109 2.5652742 -0.34817278 0
1.839049 4.0900059 -0.37652856 0
1.7921925 4.121778 -0.38064501 0
1.6291053 -0.90051842 -0.35609889 0
1.6855097 -0.87341928 -0.35465753 0
1.7033575 0.27656615 -0.33977637 0
1.6585652 0.34616041 -0.33347577 0
1.6974478 0.50015402 -0.38297531 0
1.6523899 0.52823293 -0.3812691 0
1.703616 0.89613652 -0.38758609 0
1.6531277 0.93772328 -0.38577878 0
1.7224596 1.1903369 -0.39164644 0
1.6968169 1.2169414 -0.39078853 0
1.6771913 1.8703098 -0.34251374 0
1.6906691 2.5285132 -0.34022969 0
1.7061087 4.1818161 -0.3480221 0
1.5423137 -0.93986559 -0.35824972 0
1.6067193 0.39923763 -0.32929805 0
1.5597482 0.4314729 -0.32734299 0
1.5864323 0.57280338 -0.37880141 0
1.5326873 0.61166704 -0.37681842 0
1.5962799 0.9886229 -0.38378835 0
1.5495979 1.0344402 -0.38219783 0
1.6200688 1.8987539 -0.33385623 0
1.5759274 1.9136876 -0.32171363 0
1.6024721 2.5131454 -0.33360407 0
1.6113877 4.2460918 -0.35518581 0
1.4492307 -0.9242568 -0.35627657 0
1.4779264 0.46405685 -0.3266651 0
1.4703944 0.66116929 -0.37456888 0
1.5121163 1.0740259 -0.3809514 0
1.5283427 1.9218328 -0.32951814 0
1.514769 2.5200944 -0.34800425 0
1.5252854 4.306325 -0.31815448 0
1.3854585 -0.89606023 -0.35372812 0
1.3433055 -0.87652946 -0.35205331 0
1.3801047 0.47869742 -0.32860136 0
1.370855 0.74872375 -0.3710666 0
1.4298986 4.3711243 -0.32362449 0
1.2949055 0.46819413 -0.33274052 0
1.3138152 0.80418479 -0.36911744 0
1.2773232 0.8426888 -0.3679035 0
1.3272861 4.4408293 -0.32960433 0
1.2060072 0.43479955 -0.33922499 0
1.2534797 4.4909639 -0.33397123 0
1.1751215 4.5441871 -0.33865827 0
1.0377289 0.36957228 -0.35199311 0
1.1175262 1.8900493 -0.37219435 0
1.1072686 1.9664432 -0.37256992 0
1.0990775 2.0653369 -0.37328407 0
1.0917414 4.6008196 -0.34369826 0
1.0009652 0.40435576 -0.3507266 0
0.95320916 0.45203424 -0.3491087 0
1.0028023 4.6612258 -0.3491286 0
0.90652883 0.50077391 -0.3475506 0
0.88373637 0.52566433 -0.34680176 0
0.90769124 4.7258205 -0.35499194 0
0.78076339 1.8710258 -0.35689914 0
0.76733077 1.9776145 -0.35746258 0
0.76028609 2.0715265 -0.35817361 0
0.75799406 2.1658516 -0.35910213 0
0.76084375 2.2738523 -0.36041045 0
0.76814425 2.3683038 -0.36177009 0
0.78872168 4.7786875 -0.36025208 0
0.70274842 4.6609297 -0.35233966 0
0.7439239 4.7214131 -0.35636705 0
0.47992206 -0.30063319 -0.31967428 0
0.42895222 -0.2536571 -0.3179048 0
0.37901998 -0.20557761 -0.31619376 0
0.32993317 -0.15663052 -0.31453007 0
0.36287999 2.7882218 -0.25678596 0
0.40132952 2.8652282 -0.25755906 0
0.28192163 -0.10661864 -0.31292623 0
0.23478603 -0.055768013 -0.31137088 0
0.29221845 1.7770449 -0.29012328 0
0.26755261 1.8599515 -0.2909331 0
0.24745941 1.9612628 -0.3339994 0
0.24135876 2.0297325 -0.33447498 0
0.24872589 2.4782724 -0.33971083 0
0.26180124 2.5817084 -0.34142786 0
0.28104544 2.6938536 -0.30063722 0
0.31473446 2.7659607 -0.30122691 0
0.21148539 1.9420556 -0.25129855 0
0.23818088 2.0812593 -0.33489618 0
0.23522878 2.1673601 -0.33570567 0
0.23545694 2.2709284 -0.33684862 0
0.23994899 2.3746221 -0.33818397 0
0.15804148 2.6409283 -0.26208109 0
0.068797112 2.0250652 -0.25822359 0
0.037748814 2.6280861 -0.26734084 0
-0.25071049 -1.1607885 -0.23246008 0
-0.32985139 -1.1548371 -0.23192725 0
-0.41079211 -1.1487503 -0.2314301 0
-0.53604913 -1.1393335 -0.23075853 0
-0.66541386 -1.1296084 -0.23016395 0
-0.67263269 2.074769 -0.29402265 0
-0.67796755 2.1697822 -0.29482287 0
-0.68075681 2.2650878 -0.29574025 0
-0.68050528 2.3845432 -0.29705802 0
-0.67649221 2.5042157 -0.29854673 0
-0.67025399 2.6000421 -0.29987431 0
-0.66140842 2.6958694 -0.30131865 0
-1.027806 -1.3318765 -0.23595393 0
-1.1195199 -1.2692723 -0.23399961 0
-1.2277157 2.8280714 -0.19254346 0
-1.2976143 2.0424621 -0.18590856 0
-1.2974105 2.7828789 -0.19274706 0
-1.3669097 2.0988917 -0.1870835 0
-1.4249089 2.7450702 -0.19381073 0
-2.6915057 2.2131388 -0.20509471 0
-2.6998675 2.3281398 -0.20597795 0
-2.7041376 2.4050608 -0.20662792 0
-2.707423 2.4821591 -0.20732403 0
-2.7103684 2.5981338 -0.20846054 0
-2.7113197 2.7144082 -0.20968963 0
-2.7106159 2.7921057 -0.21057095 0
-2.7089026 2.869925 -0.21149883 0
2.9331715 0.47602797 -0.28154367 0
2.9390862 0.56608164 -0.30214179 0
2.9455261 0.64674354 -0.29461527 0
2.9540045 0.75296879 -0.28476214 0
2.9614992 0.84690011 -0.27610523 0
2.9672205 0.92793262 -0.2902537 0
2.9754221 1.0298932 -0.27886152 0
2.9822817 1.1245792 -0.2875478 0
2.8676267 0.10880053 -0.27296168 0
2.9163046 0.26286435 -0.29797974 0
2.9252386 0.37576377 -0.28925896 0
2.7811725 0.11535621 -0.26861525 0
2.4283347 0.14207256 -0.25353074 0
2.4731023 3.1575198 -0.28369474 0
2.3754556 0.068029881 -0.2566644 0
2.4211421 3.2662716 -0.27747548 0
2.3746643 3.3644466 -0.26618072 0
2.2322922 -0.14098907 -0.26598474 0
2.2971971 -0.046230316 -0.26171514 0
2.3380771 3.4396915 -0.2736873 0
2.2965698 3.5250511 -0.28223443 0
2.1616044 -0.24647355 -0.22885105 0
2.1889484 3.8553061 -0.28412986 0
2.0243533 -0.44705296 -0.23427248 0
2.0824399 -0.36216545 -0.23195651 0
2.1385295 3.8895838 -0.28638017 0
2.0869441 3.9260378 -0.25534719 0
1.9616647 -0.53866339 -0.2368011 0
2.011323 3.9774923 -0.25769874 0
1.8451476 1.4950225 -0.25888053 0
1.8480024 1.5186297 -0.29161334 0
1.9431252 2.8006153 -0.26763353 0
1.9487253 2.8432164 -0.27219963 0
1.9414046 2.9513671 -0.26646259 0
1.9205841 3.0164154 -0.25429541 0
1.9092495 4.0469398 -0.26102141 0
1.7714601 -0.83325958 -0.24538192 0
1.7419574 0.10844624 -0.2799136 0
1.7453806 0.10974765 -0.20326531 0
1.7298536 0.22281528 -0.2348457 0
1.7869055 1.3588738 -0.23587224 0
1.8291028 1.4385903 -0.24659184 0
1.7593895 2.5545218 -0.25973216 0
1.8428946 4.0920815 -0.26327288 0
1.7960861 4.1239243 -0.26490283 0
1.6336061 -0.89953089 -0.24512479 0
1.6899412 -0.87244868 -0.24520311 0
1.7080817 0.27803504 -0.2315089 0
1.6631809 0.34749806 -0.22731832 0
1.674957 1.8753355 -0.25309724 0
1.7178957 2.5369971 -0.26257211 0
1.7343647 4.1659193 -0.26687068 0
1.5458573 -0.94171405 -0.24507242 0
1.6112885 0.40049767 -0.22418085 0
1.5643228 0.43270314 -0.22234543 0
1.6253567 1.8995459 -0.23949286 0
1.5810809 1.914449 -0.24355169 0
1.6040827 2.5141728 -0.25317699 0
1.6154552 4.2485204 -0.22978111 0
1.454621 -0.98557281 -0.24508876 0
1.4825548 0.46525049 -0.22065166 0
1.5338231 1.9226118 -0.24807954 0
1.5137053 2.5226173 -0.24054264 0
1.5280466 4.3080378 -0.23147455 0
1.3586233 -1.0317199 -0.245197 0
1.3848554 0.47988105 -0.22013846 0
1.4327159 4.3729467 -0.23339087 0
1.2584599 -1.0798681 -0.24538416 0
1.3239068 0.47476423 -0.22064984 0
1.33016 4.4427729 -0.23550975 0
1.2111142 0.43602812 -0.22316289 0
1.2563924 4.4929972 -0.2370733 0
1.1780723 4.5463185 -0.2387639 0
1.0947299 4.6030588 -0.24059445 0
1.0058284 4.6635818 -0.2425797 0
0.91075146 4.7283087 -0.24473667 0
0.79255426 4.7802305 -0.24608776 0
0.70726383 4.6613855 -0.23970497 0
0.74847126 4.7218695 -0.24289115 0
0.36628938 2.7886109 -0.17322874 0
0.40487075 2.8655581 -0.17445186 0
0.31503224 1.7801389 -0.16455804 0
0.27925158 1.8613428 -0.16493344 0
0.28617549 2.703409 -0.17249268 0
0.33190513 2.7451093 -0.17274764 0
0.21577334 1.9425529 -0.16581458 0
0.16061521 2.6415868 -0.17289773 0
0.07407403 2.0255773 -0.16788301 0
0.023296356 2.6322322 -0.17439491 0
2.9368777 0.47473419 -0.19502664 0
2.9437828 0.56456614 -0.19271386 0
2.9499965 0.64540803 -0.19064307 0
2.9581773 0.75185108 -0.18793598 0
2.9654093 0.84596086 -0.18556111 0
2.9716759 0.92752087 -0.18352446 0
2.9803486 1.0512925 -0.19947615 0
2.986017 1.1245552 -0.19674742 0
2.87168 0.1099987 -0.16789475 0
2.9204581 0.2611506 -0.20056513 0
2.9291553 0.37427926 -0.19762537 0
2.7852259 0.11654365 -0.16428705 0
2.4324634 0.14323997 -0.15022801 0
2.5108535 3.0933826 -0.15153603 0
2.4762654 3.1613111 -0.18943718 0
2.379637 0.068278074 -0.14918229 0
2.4245238 3.2705157 -0.17319377 0
2.3776195 3.3677387 -0.17550309 0
2.2369168 -0.14074802 -0.14650439 0
2.30162 -0.045985222 -0.14770739 0
2.3411314 3.4433701 -0.17731249 0
2.2997253 3.5291941 -0.17937614 0
2.1648345 -0.24631667 -0.14518574 0
2.1924019 3.8569028 -0.18887126 0
2.0278707 -0.44690585 -0.14272374 0
2.0858355 -0.36201429 -0.14375851 0
2.1420383 3.8912439 -0.18868968 0
2.0905075 3.9277644 -0.15516296 0
1.9653134 -0.53852248 -0.14161676 0
2.0149686 3.97932 -0.15372388 0
1.8494246 1.4990948 -0.1698859 0
1.9540465 2.8497758 -0.16459805 0
1.9464909 2.9503415 -0.16904733 0
1.926959 3.0139925 -0.15142743 0
1.9130051 4.0489092 -0.15181857 0
1.775776 -0.83231711 -0.13850375 0
1.7487884 0.11104298 -0.12696666 0
1.7346692 0.22442508 -0.12530568 0
1.8000233 1.3748882 -0.15560079 0
1.8328335 1.4391418 -0.15406844 0
1.7597849 2.5538907 -0.17165126 0
1.8467197 4.0941472 -0.15060286 0
1.7999599 4.1260595 -0.14975572 0
1.6380888 -0.89854765 -0.13458702 0
1.6943548 -0.87148261 -0.13617867 0
1.7127714 0.27949297 -0.12404029 0
1.667763 0.34882605 -0.12193506 0
1.7149079 2.5354981 -0.15403372 0
1.7255077 4.1768699 -0.14842322 0
1.5504506 -0.94070268 -0.13213108 0
1.6268191 0.39245546 -0.12024789 0
1.5808531 0.42629683 -0.11853851 0
1.6304998 1.9003166 -0.14786255 0
1.5872363 1.9153552 -0.14833179 0
1.6061618 2.515393 -0.15446511 0
1.6181554 4.2501326 -0.14653037 0
1.4593309 -0.98453236 -0.1296012 0
1.48715 0.46643579 -0.11540115 0
1.5403614 1.923539 -0.14888781 0
1.513437 2.5248187 -0.13434187 0
1.5308012 4.3097463 -0.14501214 0
1.3634593 -1.0306478 -0.12696972 0
1.3895717 0.48105645 -0.11245416 0
1.435526 4.3747644 -0.14337939 0
1.2634301 -1.0787623 -0.12424888 0
1.3287247 0.47594237 -0.1107695 0
1.3330271 4.4447117 -0.141642 0
1.2161845 0.43724775 -0.10793256 0
1.2592977 4.4950256 -0.14040542 0
1.181016 4.5484457 -0.1391027 0
1.0977113 4.6052928 -0.13772693 0
1.0088472 4.6659336 -0.13627023 0
0.91380739 4.7307873 -0.13472356 0
0.79637492 4.7817698 -0.13225973 0
0.71176231 4.6618395 -0.12749231 0
0.75300157 4.7223234 -0.12984057 0
0.36968565 2.7889986 -0.089986056 0
0.40839815 2.8658869 -0.091668725 0
0.31884861 1.7806395 -0.082323544 0
0.28323126 1.8618394 -0.081792518 0
0.2894299 2.703867 -0.087350219 0
0.33520055 2.7455397 -0.088775262 0
0.22004247 1.9430481 -0.080707893 0
0.16318083 2.6422436 -0.083973899 0
0.079324961 2.0260866 -0.077992916 0
0.0041575432 2.6373417 -0.08040376 0
-0.2439394 -1.1591201 -0.080195889 0
-0.32298231 -1.153151 -0.077968985 0
-0.40382218 -1.147047 -0.075707398 0
-0.52891779 -1.1376019 -0.072240286 0
-0.65811229 -1.1278477 -0.068692572 0
-1.0198717 -1.3300066 -0.060461506 0
-1.1115196 -1.267411 -0.057623938 0
-1.222611 2.8288324 -0.054873571 0
-1.2906284 2.0431895 -0.048192963 0
-1.2926905 2.7837276 -0.052955061 0
-1.3593481 2.0996089 -0.046975702 0
-1.4237683 2.7465229 -0.049769051 0
-3.0451214 2.1810043 -0.010638572 0
-3.035917 2.303045 -0.011519179 0
-3.0267284 2.4249008 -0.012439094 0
-3.0206091 2.5060699 -0.013078935 0
-3.0144904 2.58723 -0.013739064 0
-3.0053117 2.7090349 -0.014770374 0
-2.9961236 2.8309879 -0.015843622 0
-2.9899867 2.9124441 -0.016587652 0
2.9418159 0.47300971 -0.07974866 0
2.9484694 0.56305456 -0.083524853 0
2.9544566 0.64407539 -0.086911924 0
2.9623396 0.75073636 -0.091351248 0
2.9693089 0.84502494 -0.095256887 0
2.9753489 0.92672551 -0.098619431 0
2.9851825 1.0508556 -0.084655464 0
2.9905765 1.1242106 -0.088575602 0
2.8743739 0.11079502 -0.098062076 0
2.9259939 0.25886619 -0.070727989 0
2.9343748 0.37230122 -0.075512677 0
2.7879198 0.11733305 -0.094945081 0
2.4352078 0.14401567 -0.08156722 0
2.5121086 3.0944166 -0.1165233 0
2.4801283 3.165411 -0.07647904 0
2.3824186 0.068443537 -0.077683404 0
2.4417827 3.2431593 -0.091420017 0
2.3967297 3.3372779 -0.086596698 0
2.2399933 -0.14058685 -0.067021683 0
2.3045626 -0.045821428 -0.071866296 0
2.3441854 3.4470484 -0.080951534 0
2.302881 3.5333381 -0.076499745 0
2.1680613 -0.24615955 -0.06160304 0
2.1969986 3.8590286 -0.062069118 0
2.0313845 -0.4467597 -0.051263452 0
2.0892277 -0.36186242 -0.055646509 0
2.146709 3.8934536 -0.058645606 0
2.09288 3.9289131 -0.088457599 0
1.9689586 -0.53838253 -0.046523407 0
2.0173962 3.9805365 -0.084491491 0
1.8552009 1.500025 -0.030122302 0
1.9588935 2.8496318 -0.057445623 0
1.952337 2.9493482 -0.053546056 0
1.9316363 3.0125299 -0.070192225 0
1.9155059 4.05022 -0.079100646 0
1.7800856 -0.83137608 -0.031784549 0
1.7521887 0.11233556 -0.050830215 0
1.7378683 0.22549427 -0.05252935 0
1.8036211 1.3746397 -0.03905876 0
1.8372228 1.4397566 -0.043942317 0
1.7645574 2.5549693 -0.031981587 0
1.8492672 4.0955229 -0.075573102 0
1.8025395 4.1274815 -0.073074147 0
1.6425651 -0.89756536 -0.024214655 0
1.6987622 -0.87051749 -0.027316958 0
1.7158873 0.28046203 -0.052632511 0
1.6708078 0.34970808 -0.051906839 0
1.7183588 2.5364196 -0.045830965 0
1.7281376 4.1783681 -0.069078818 0
1.5550365 -0.93969321 -0.01935944 0
1.6298397 0.39330006 -0.05082234 0
1.5838679 0.42711103 -0.049266227 0
1.6366426 1.9012389 -0.039168894 0
1.5946043 1.916442 -0.035577647 0
1.6154302 2.5170262 -0.037334725 0
1.6208551 4.2517443 -0.06328927 0
1.4640335 -0.98349404 -0.014287919 0
1.4902037 0.46722341 -0.045454383 0
1.5481904 1.9246507 -0.031460017 0
1.5126309 2.5268025 -0.049280301 0
1.5335553 4.3114543 -0.05855605 0
1.3682877 -1.0295775 -0.0089216977 0
1.3927064 0.48183751 -0.040888667 0
1.4383361 4.3765821 -0.053370237 0
1.2683924 -1.0776589 -0.0032981485 0
1.3319269 0.47672594 -0.037743777 0
1.3358948 4.44665 -0.047771916 0
1.2195544 0.43805861 -0.031351179 0
1.2622036 4.4970546 -0.043731555 0
1.1839598 4.5505729 -0.039431363 0
1.1006932 4.6075277 -0.034844548 0
1.0118663 4.6682858 -0.029940531 0
0.91686237 4.7332692 -0.024684191 0
0.80019331 4.7833085 -0.018489689 0
0.71625507 4.6622925 -0.015426889 0
0.75752568 4.7227769 -0.016938388 0
0.37307739 2.7893858 -0.0068539977 0
0.41192079 2.8662152 -0.0090067983 0
0.32265806 1.7811393 -0.00023043156 0
0.28720236 1.862335 0.0011971891 0
0.29268074 2.7043242 -0.0023050755 0
0.33849192 2.7459695 -0.0049049854 0
0.22430277 1.9435424 0.0042304993 0
0.1657455 2.6429 0.0049076974 0
0.084562302 2.0265949 0.011667922 0
-0.01529479 2.6425352 0.01511839 0
-0.23717928 -1.157454 0.07179983 0
-0.31612563 -1.1514683 0.075716883 0
-0.39686418 -1.1453464 0.079738781 0
-0.52179956 -1.1358733 0.085994899 0
-0.65082455 -1.12609 0.092488796 0
-1.0119514 -1.32814 0.1147179 0
-1.1035337 -1.2655528 0.1184366 0
-1.2175102 2.8295927 0.082649946 0
-1.2836573 2.0439155 0.089245111 0
-1.2879746 2.7845755 0.086721107 0
-1.3518054 2.1003244 0.092818201 0
-1.4226263 2.7479768 0.09441632 0
-3.036309 2.1820064 0.18804368 0
-3.0271165 2.3040247 0.18695316 0
-3.0179355 2.4258583 0.18590486 0
-3.0118186 2.5070131 0.18523365 0
-3.0057018 2.5881588 0.18458286 0
-2.9965193 2.7099426 0.18364671 0
-2.9873235 2.8318746 0.18275014 0
-2.98118 2.9133174 0.18217838 0
2.9449162 0.47515726 0.0068804622 0
2.9525883 0.56460416 0.026174963 0
2.9583688 0.6454854 0.017308593 0
2.965982 0.75197279 0.0056941807 0
2.9727149 0.84611571 -0.0045176446 0
2.9794879 0.92749667 0.0083197951 0
2.9867043 1.0296307 -0.004760325 0
2.9942489 1.1243916 0.0024155378 0
2.8784442 0.11180174 0.0068979114 0
2.9294989 0.2615732 0.02682057 0
2.9376645 0.374704 0.01624307 0
2.7919803 0.11835384 0.009275943 0
2.4393172 0.14504731 0.021626532 0
2.4832878 3.169538 0.019048527 0
2.3868632 0.070693016 0.029693499 0
2.4449153 3.2485857 0.011370644 0
2.405287 3.3322682 0.023109213 0
2.2450826 -0.13780117 0.052316427 0
2.3093536 -0.043285131 0.042016655 0
2.3466077 3.4537003 0.016671211 0
2.3052576 3.5409014 0.027787298 0
2.1718748 -0.24316096 0.021911278 0
2.200233 3.8615232 0.033542141 0
2.0357385 -0.44316244 0.040094733 0
2.0933475 -0.35852599 0.032378331 0
2.1670971 3.884299 0.037404701 0
2.1051676 3.9250615 0.01096271 0
1.9735732 -0.53449368 0.048450708 0
2.0404339 3.9695034 0.017762467 0
1.9817121 4.0098119 0.023863018 0
1.859129 1.5008202 0.058240071 0
1.8641545 1.521409 0.090857387 0
1.957651 2.7991505 0.063815206 0
1.9637451 2.8458889 0.050223067 0
1.9546192 2.9582267 0.044715449 0
1.9376395 3.0093813 0.010836139 0
1.9190283 4.0528426 0.030450583 0
1.7847719 -0.82917523 0.074946016 0
1.7562689 0.11199629 0.063742131 0
1.7420207 0.22575343 0.056930885 0
1.7942923 1.3572134 0.042766094 0
1.8410635 1.4403986 0.048517764 0
1.7732179 2.5580499 0.055637881 0
1.8528235 4.0982938 0.037469968 0
1.8061174 4.1303596 0.042464212 0
1.6475145 -0.89518356 0.086158544 0
1.7036018 -0.86821032 0.081549972 0
1.7201133 0.28102779 0.054738402 0
1.6751075 0.35053825 0.053361148 0
1.6949434 1.8761822 0.078965992 0
1.7286582 2.5395975 0.06245552 0
1.7445246 4.1726341 0.048866317 0
1.5601623 -0.93719316 0.093405813 0
1.6341852 0.39424479 0.053526282 0
1.5883198 0.4282105 0.05483371 0
1.6468978 1.9004517 0.069463477 0
1.6005177 1.9173079 0.058753639 0
1.6034498 2.5176921 0.043760478 0
1.6235613 4.2533603 0.020145446 0
1.4693491 -0.98086786 0.10101116 0
1.4949229 0.46858823 0.05962652 0
1.5544592 1.925536 0.066762596 0
1.5118207 2.5288076 0.036777586 0
1.5363164 4.3131666 0.028104752 0
1.3738118 -1.0268154 0.10910335 0
1.3978405 0.48355758 0.066580281 0
1.4411535 4.3784037 0.036856309 0
1.2741413 -1.0747521 0.11762002 0
1.3374795 0.47881699 0.071872205 0
1.3387687 4.4485941 0.046329796 0
1.2260245 0.44091403 0.083509043 0
1.2651167 4.4990883 0.05318436 0
1.1869117 4.5527048 0.060493499 0
1.1036836 4.609767 0.068303898 0
1.0148932 4.6706438 0.076669127 0
0.91992557 4.7357569 0.08565031 0
0.80407631 4.7847652 0.09549284 0
0.72075248 4.6627464 0.096764743 0
0.76205492 4.7232323 0.096090838 0
0.3762126 2.7898521 0.076394349 0
0.4155221 2.8665166 0.073728561 0
0.326648 1.7816628 0.081905127 0
0.29169917 1.862882 0.084189802 0
0.29502106 2.7050169 0.082934707 0
0.34123778 2.7465539 0.079118609 0
0.22961259 1.9441041 0.089111224 0
0.16576266 2.6441164 0.094198838 0
0.092706442 2.0271854 0.10105084 0
2.9486783 0.47384989 0.094723612 0
2.9561698 0.56345403 0.10964358 0
2.9629307 0.64412773 0.12343943 0
2.9702384 0.75083768 0.10449241 0
2.9777207 0.84491873 0.11142732 0
2.9842207 0.92647588 0.11775514 0
2.9934192 1.0502709 0.11216623 0
2.998708 1.1297482 0.094555601 0
2.882539 0.11281633 0.11249489 0
2.9337175 0.25983965 0.12578911 0
2.9416413 0.3732034 0.10930811 0
2.7960653 0.11938202 0.11412823 0
2.4434659 0.14622092 0.12543076 0
2.4903061 3.1653376 0.11539745 0
2.3910716 0.07094574 0.13785699 0
2.4485044 3.2520843 0.1166687 0
2.4029114 3.3468609 0.11575308 0
2.2497368 -0.13755488 0.17254677 0
2.3138051 -0.043035507 0.1567432 0
2.3497572 3.4575026 0.11610165 0
2.3085146 3.5451896 0.1340282 0
2.1767459 -0.24292088 0.14807078 0
2.2037377 3.8631449 0.13023287 0
2.0392668 -0.44301295 0.13192406 0
2.0967541 -0.35837221 0.12084964 0
2.1706393 3.8859632 0.13572457 0
2.1275375 3.9156752 0.14280814 0
1.9772336 -0.53434968 0.14392334 0
1.9699891 2.8632421 0.1453492 0
2.0439148 3.9718809 0.1218923 0
1.9852297 4.0123138 0.13102609 0
1.8629396 1.5014713 0.14890575 0
1.8671715 1.5266533 0.14392713 0
1.9568716 2.7833452 0.13406268 0
1.96731 2.8603382 0.12614176 0
1.9576751 2.9661169 0.14618328 0
1.9225817 4.0554829 0.14090925 0
1.7890987 -0.8282299 0.18208316 0
1.7614088 0.11395013 0.17882666 0
1.7468567 0.22737014 0.16693771 0
1.8106306 1.3749361 0.16074258 0
1.8450097 1.4410613 0.14340416 0
1.7961943 2.5706818 0.14244768 0
1.8564115 4.1010828 0.15145692 0
1.8097272 4.1332579 0.15897277 0
1.6520085 -0.89419603 0.19695696 0
1.7080268 -0.86724019 0.19083443 0
1.7248232 0.28249228 0.16267499 0
1.6797099 0.35187197 0.15920889 0
1.6950192 1.8785875 0.15192983 0
1.7177136 2.5356219 0.14005154 0
1.721271 4.1925287 0.13240489 0
1.5647665 -0.93617797 0.20660874 0
1.6387509 0.39552152 0.15846044 0
1.5928767 0.42944074 0.15953076 0
1.634034 1.9077847 0.14824399 0
1.5913458 1.9209416 0.15939516 0
1.6199968 2.5193827 0.1633662 0
1.6268013 4.2575884 0.14643204 0
1.4740702 -0.97982383 0.21676117 0
1.4995382 0.4697789 0.16532981 0
1.5580236 1.926035 0.12655705 0
1.5381145 4.3168306 0.1154025 0
1.378659 -1.0257401 0.22759378 0
1.4025769 0.48473847 0.1747092 0
1.4428607 4.3823566 0.12776607 0
1.3423173 0.48000121 0.18218479 0
1.3403645 4.452868 0.14116633 0
1.2311136 0.44213915 0.1991441 0
1.2666209 4.503603 0.15087414 0
1.1883109 4.5574808 0.16123462 0
1.1049598 4.61483 0.17231533 0
1.0160273 4.6760216 0.18419307 0
0.92089379 4.7414808 0.19695595 0
0.80910027 4.7845745 0.20975652 0
0.72567916 4.6626525 0.20928344 0
0.76702905 4.7230906 0.20944554 0
0.38133383 2.7904372 0.2019403 0
0.42083836 2.8670123 0.19850662 0
0.33233666 1.7824092 0.20575398 0
0.29766607 1.8636272 0.20933855 0
0.30918193 2.7123363 0.21015802 0
0.34620833 2.7472038 0.20582879 0
0.24451733 1.936675 0.21584782 0
0.16834378 2.6447785 0.18374082 0
0.097948313 2.0276942 0.19080812 0
-0.22935677 -1.1545911 0.22376642 0
-0.30814004 -1.1485503 0.22936717 0
-0.42993236 -1.1392102 0.23812208 0
-0.5555861 -1.1295726 0.24725249 0
-0.64210558 -1.122936 0.25360546 0
-1.0036867 -1.325954 0.28997231 0
-1.0951476 -1.2633388 0.29456645 0
-1.2142816 2.830709 0.22053519 0
-1.1661346 2.8785002 0.21639621 0
-1.2746787 2.0446699 0.22655678 0
-1.2862186 2.7859418 0.22689465 0
-1.3410971 2.1010394 0.23234883 0
-1.504667 2.1607363 0.24709341 0
-1.432843 2.7512479 0.24014041 0
-3.0184238 2.3050091 0.38560799 0
-3.0091827 2.4268193 0.38442507 0
-3.0030243 2.5079572 0.38371846 0
-2.9968646 2.5890849 0.38307288 0
-2.9876125 2.7108393 0.3822259 0
-2.9783447 2.8327401 0.38150004 0
-2.9721515 2.9141603 0.38109669 0
2.9537947 0.47207057 0.21419838 0
2.9598265 0.56227934 0.19486338 0
2.9676192 0.6427325 0.23251095 0
2.9746122 0.7496711 0.20600981 0
2.9818399 0.8439337 0.20683953 0
2.9871449 0.92584527 0.18537012 0
2.9919171 0.99944425 0.16620684 0
2.8866677 0.11403763 0.21952331 0
2.9380009 0.25808001 0.22628108 0
2.9456787 0.37168062 0.20379338 0
2.800194 0.12059259 0.22040343 0
2.4476717 0.14741063 0.23065352 0
2.4044068 0.084630966 0.24436271 0
2.4503701 3.2563028 0.182419 0
2.3969705 3.3678331 0.19176078 0
2.2528739 -0.13738847 0.25357893 0
2.3168051 -0.042866707 0.23406497 0
2.3526752 3.462914 0.21893686 0
2.3110161 3.5484838 0.21563226 0
2.1816669 -0.24267745 0.27551126 0
2.2072928 3.8647904 0.22831067 0
2.0428181 -0.4428618 0.2243394 0
2.1019118 -0.35813761 0.25479677 0
2.1742325 3.8876514 0.23545673 0
2.1122503 3.9290736 0.21421731 0
1.9809176 -0.53420448 0.24000618 0
2.0476365 3.9737315 0.22765052 0
1.9890176 4.0142469 0.23986724 0
1.949682 3.0043654 0.19714898 0
1.9251432 4.0568266 0.21540222 0
1.793451 -0.82727885 0.28984767 0
1.7648675 0.11526513 0.25627306 0
1.7501119 0.2284584 0.24098343 0
1.7848952 1.3370775 0.21595216 0
1.8590209 4.1024933 0.22833049 0
1.8123701 4.1347165 0.23754767 0
1.6565287 -0.89320326 0.30840322 0
1.7124772 -0.86626482 0.30075827 0
1.7295958 0.28397655 0.27204427 0
1.6843739 0.35322368 0.26647332 0
1.73808 4.1860366 0.2523759 0
1.5693973 -0.93515825 0.32047287 0
1.6433781 0.39681578 0.26480347 0
1.5974947 0.43068779 0.26563796 0
1.5930059 2.5195501 0.21327898 0
1.6309383 4.2600613 0.27402294 0
1.5042156 0.47098565 0.27246094 0
1.5423222 4.3194437 0.24751872 0
1.4167749 0.48613214 0.28276995 0
1.4457139 4.3842039 0.21918291 0
1.2791231 -1.0736423 0.23901895 0
1.3455747 0.48079836 0.25646025 0
1.3432758 4.4548407 0.2365247 0
1.2345405 0.44296455 0.2770032 0
1.2695719 4.5056663 0.24909568 0
1.1496447 4.5883746 0.26969928 0
1.0190949 4.6784143 0.2922819 0
0.92399752 4.7440081 0.30883858 0
0.79956865 4.7643938 0.32432583 0
0.73021829 4.6631117 0.32253119 0
0.77160013 4.7235508 0.32353708 0
0.38650489 2.7910278 0.32870314 0
0.42620516 2.8675129 0.32447112 0
0.44431019 2.9331315 0.32419983 0
0.33807278 1.7831618 0.33074391 0
0.30365753 1.8643762 0.33562437 0
0.293648 2.6996348 0.29923534 0
0.35122848 2.74786 0.33378676 0
0.23186135 1.9535229 0.30437225 0
0.10321569 2.0282052 0.28099445 0
0.17094207 2.6454449 0.27389947 0
-0.22257209 -1.1529181 0.3762826 0
-0.30125928 -1.1468606 0.38357559 0
-0.42289734 -1.1374943 0.39501074 0
-0.54838777 -1.1278281 0.40697154 0
-1.2091539 2.8314738 0.35884181 0
-1.1607635 2.8792021 0.35332617 0
-1.267688 2.045398 0.36437628 0
-1.2814751 2.7867956 0.36747012 0
-1.3335378 2.1017563 0.37242803 0
-1.4928367 2.1613934 0.392423 0
-1.4317081 2.752723 0.38608524 0
2.951216 0.36959112 0.33337992 0
2.9577336 0.47070134 0.30617908 0
2.9635634 0.56107879 0.28195173 0
2.8908625 0.11527872 0.32825881 0
2.9409127 0.25688398 0.2945919 0
2.9484229 0.37064469 0.26801291 0
2.8043888 0.12182271 0.32837418 0
2.4519444 0.14861941 0.3375558 0
2.3891652 0.057946444 0.32510316 0
2.2560463 -0.13722086 0.33553082 0
2.3315513 -0.027502537 0.34759587 0
2.3119226 3.5541716 0.27232879 0
2.1849945 -0.24251366 0.36168873 0
2.2108228 3.8669262 0.32890883 0
2.0464008 -0.44270968 0.31757438 0
2.1071391 -0.35790038 0.39055422 0
2.1777887 3.8898537 0.33775938 0
2.1248121 3.9247401 0.31634852 0
1.9846339 -0.53405952 0.3369424 0
2.0514247 3.975615 0.33529595 0
1.9928732 4.0162153 0.35065466 0
1.9290507 4.0588784 0.32905039 0
1.7978394 -0.82631922 0.39851043 0
1.7683618 0.11659324 0.33450809 0
1.7550664 0.23011434 0.35368416 0
1.8630021 4.1046457 0.34561545 0
1.815045 4.1361923 0.31707969 0
1.716965 -0.86528111 0.4115977 0
1.7344429 0.28548372 0.38312432 0
1.6891112 0.35459673 0.37542525 0
1.7408075 4.187592 0.33468798 0
1.6480781 0.39813018 0.37282333 0
1.6021857 0.43195391 0.37342182 0
1.6337392 4.2617359 0.36040521 0
1.4788187 -0.97877407 0.33318642 0
